-0.325831 0.060070 0.649759 0.382423 0.633650 0.848594
-0.276346 -0.434855 -0.200891 0.362090 0.764346 0.116521
-0.411054 -0.179693 0.723999 0.692630 0.806762 0.793403
-0.462765 -0.441240 -0.522360 0.451492 0.598157 0.483291
0.518998 0.045478 0.100430 0.179442 0.608920 0.666996
0.267574 -0.395869 -0.666479 0.540873 0.794278 0.744150
0.308531 -0.154131 0.696463 0.079797 0.835191 0.310961
-0.196164 -0.486229 0.082132 0.888830 0.611711 0.727512
-0.476165 0.240475 -0.187563 0.124246 0.920881 0.465523
0.546152 -0.064424 0.728124 0.565614 0.554526 0.809245
0.435759 0.177912 0.436635 0.861645 0.969046 0.264753
-0.866439 -0.237338 0.308917 0.991373 0.452963 0.344227
0.710459 -0.441079 -0.349152 0.456450 0.229189 0.606217
0.268219 -0.673756 -0.063208 0.204329 0.198885 0.949354
-0.474999 -0.874990 0.061413 0.780601 0.727423 0.372110
0.107918 0.202586 -0.888470 0.572403 0.007588 0.678357
-0.783253 0.261100 0.499264 0.822040 0.178003 0.897121
-0.115279 0.071228 -0.440710 0.101369 0.374750 0.859018
-0.363792 0.008101 0.106272 0.378165 0.820269 0.754417
0.007532 0.519439 0.381306 0.188119 0.022538 0.711660
0.285150 0.406710 0.088103 0.268158 0.125581 0.872733
0.426264 0.099251 0.781128 0.158820 0.822444 0.006185
0.027219 -0.512626 -0.581027 0.912865 0.842437 0.808416
-0.525947 -0.518306 -0.377496 0.408589 0.397203 0.675742
-0.160795 -0.400037 -0.181734 0.568173 0.432089 0.608119
-0.747371 -0.232236 0.605745 0.691325 0.745104 0.658024
0.911215 0.040342 0.191620 0.671846 0.648380 0.914638
0.338152 -0.292834 0.591508 0.952521 0.694302 0.209464
-0.361344 -0.356604 -0.528873 0.522308 0.186515 0.636238
0.023532 0.935539 0.127281 0.316585 0.222448 0.640065
0.082625 0.099343 0.001520 0.151139 0.183129 0.619837
0.631199 0.387419 0.265719 0.691655 0.280095 0.538319
0.877952 -0.393842 0.089252 0.349573 0.250011 0.323793
0.740883 0.381441 0.265620 0.173990 0.820851 0.954098
0.639926 0.114429 0.509626 0.704486 0.720092 0.818360
-0.292480 -0.395861 -0.483334 0.649621 0.830014 0.911493
-0.454983 0.242589 0.711490 0.221140 0.827027 0.023274
-0.550782 -0.527266 0.015239 0.368036 0.074156 0.609750
-0.005469 0.507536 0.022403 0.132956 0.530919 0.453150
-0.055826 0.376462 0.556907 0.988002 0.187018 0.857703
-0.284478 0.111668 0.723644 0.246692 0.893974 0.019720
-0.630248 0.173876 0.694742 0.711315 0.194837 0.362599
0.678459 -0.496832 -0.513818 0.132140 0.311188 0.306613
-0.125942 0.386345 -0.611483 0.532178 0.261273 0.011054
0.473515 -0.739148 -0.190692 0.017702 0.979330 0.667943
-0.019524 0.239311 -0.302653 0.429951 0.620306 0.663322
0.700999 -0.017234 0.436556 0.432130 0.116643 0.268636
0.284909 -0.653855 -0.671835 0.050882 0.001715 0.508598
-0.053742 0.345860 -0.258610 0.621961 0.376989 0.930643
-0.054489 -0.514293 -0.690113 0.177233 0.963751 0.106577
-0.235752 0.149148 -0.230724 0.610959 0.763013 0.574598
-0.101895 -0.160175 0.136924 0.907697 0.790432 0.534669
-0.009049 -0.894966 0.212485 0.992375 0.093922 0.614104
0.718070 -0.022053 -0.015502 0.518304 0.502986 0.866972
-0.275115 -0.237256 -0.776941 0.285745 0.303255 0.094422
0.717780 0.530567 -0.213376 0.244641 0.741311 0.405902
-0.301608 -0.692821 -0.016499 0.226174 0.836632 0.575641
0.657392 -0.623736 -0.346453 0.710373 0.365375 0.956456
-0.583585 0.494760 -0.335956 0.277437 0.701573 0.092843
0.580863 -0.309192 0.002520 0.410406 0.912863 0.736275
0.527434 -0.226331 -0.318723 0.751899 0.961092 0.725872
-0.301085 -0.505885 -0.633656 0.420744 0.100038 0.535345
-0.010923 -0.734815 -0.485511 0.216095 0.889610 0.991169
-0.344190 -0.722286 -0.003532 0.800254 0.334601 0.462198
0.172667 -0.350806 0.591148 0.438299 0.892915 0.950724
0.523027 0.308464 0.367347 0.330594 0.148665 0.639052
-0.737932 0.464376 -0.239622 0.134999 0.983062 0.260128
-0.498446 0.739636 0.373469 0.892451 0.169752 0.426409
0.443419 0.439591 0.649498 0.814473 0.633165 0.337295
0.403881 -0.002511 -0.226987 0.521964 0.407537 0.158247
-0.119285 -0.831526 -0.146256 0.337105 0.433433 0.154361
0.507593 0.460031 0.005419 0.429760 0.707133 0.691618
-0.775125 0.082323 0.191890 0.877692 0.393082 0.116799
-0.431068 -0.661207 0.235773 0.709549 0.454325 0.629024
-0.493897 -0.728056 0.424332 0.769818 0.633632 0.100610
0.145762 0.675957 0.489506 0.533451 0.934143 0.979646
-0.570931 0.050959 -0.431737 0.595493 0.880700 0.128438
0.531124 0.054324 0.572773 0.393717 0.408890 0.110494
0.405808 -0.008912 -0.024618 0.738885 0.345071 0.312738
-0.100781 -0.114086 0.445143 0.259093 0.812740 0.878071
-0.191256 0.679288 -0.007145 0.772763 0.728911 0.772545
0.368760 0.317837 -0.275080 0.253571 0.387422 0.461135
0.626828 0.044691 0.335039 0.112776 0.306737 0.833726
-0.110671 -0.272687 -0.191770 0.673855 0.129757 0.215327
0.239420 0.157192 -0.934708 0.595716 0.611116 0.114176
-0.160396 -0.563741 0.542375 0.029881 0.433694 0.593555
0.332290 -0.096386 -0.447613 0.534569 0.564415 0.569567
0.125882 0.608667 -0.528710 0.992359 0.406579 0.511684
0.467415 -0.526117 0.650335 0.256219 0.158846 0.917171
0.089652 0.281200 -0.557248 0.060389 0.109952 0.003270
-0.141220 0.032107 -0.297603 0.515713 0.027224 0.796378
-0.202105 -0.499679 0.748435 0.248752 0.690177 0.215158
-0.311216 -0.576101 -0.242824 0.015285 0.662142 0.820285
0.194627 -0.706810 -0.016509 0.370482 0.071205 0.562383
-0.333076 -0.884718 0.043020 0.110211 0.088945 0.711414
0.088863 -0.816458 0.431251 0.475456 0.435219 0.178243
-0.645874 -0.399540 -0.615829 0.706427 0.406568 0.502850
0.305775 0.253824 0.750917 0.790120 0.523787 0.254690
0.560127 0.019361 0.671164 0.794655 0.655423 0.738720
-0.718972 0.471803 -0.242845 0.142637 0.248333 0.070905
-0.252376 0.402878 -0.879038 0.914837 0.414219 0.561598
0.731807 -0.384806 -0.403515 0.561397 0.546236 0.561755
-0.796227 0.025994 0.110133 0.202912 0.174196 0.821609
-0.393014 0.381168 0.059819 0.713929 0.797373 0.708544
0.591048 -0.003354 0.616827 0.680387 0.701587 0.695229
0.073813 -0.208693 0.964727 0.524517 0.817843 0.737482
-0.227265 -0.028801 0.672299 0.158603 0.814686 0.562374
-0.723513 0.067906 -0.678756 0.889181 0.712848 0.580267
0.780672 0.599337 -0.127778 0.307466 0.139442 0.578027
0.339300 -0.185274 -0.178010 0.998883 0.975072 0.644298
-0.257901 0.871889 -0.333908 0.347295 0.708320 0.020476
0.324196 -0.086190 0.019203 0.043750 0.698553 0.007280
0.204601 0.459917 0.046524 0.428542 0.895699 0.725897
-0.383894 -0.602603 0.292929 0.480577 0.877950 0.236653
0.308912 -0.462077 0.737400 0.296977 0.414315 0.197225
0.199724 0.552035 -0.025638 0.306182 0.540636 0.418289
0.132714 0.216839 0.070129 0.988632 0.732674 0.701858
-0.191810 0.180642 0.125181 0.199818 0.105845 0.133010
-0.368376 0.229066 0.223275 0.138521 0.325632 0.110911
-0.234215 0.216316 -0.819847 0.317101 0.677852 0.710671
0.510629 0.608602 0.447625 0.650786 0.890694 0.313912
-0.185980 -0.449909 -0.294984 0.237128 0.079338 0.724225
-0.783656 -0.144535 -0.304686 0.732944 0.263499 0.450935
-0.718514 -0.343088 0.024429 0.948194 0.512384 0.029116
-0.854322 -0.081467 0.486097 0.356267 0.024725 0.839026
-0.597404 0.275626 -0.212568 0.791910 0.942091 0.800714
-0.646814 0.259213 -0.182916 0.664587 0.917467 0.994504
0.032169 -0.627640 -0.171247 0.188616 0.357506 0.658888
-0.611756 -0.021546 0.535573 0.545997 0.868365 0.373582
-0.067197 -0.439350 0.423467 0.126373 0.444631 0.923550
0.377183 -0.211847 0.272984 0.776019 0.319178 0.842458
0.188475 -0.133960 0.305947 0.589411 0.157278 0.390315
0.256848 0.728543 -0.092024 0.413843 0.640044 0.774384
-0.411498 -0.018027 0.226513 0.511342 0.011509 0.253760
-0.867065 0.332403 0.061855 0.052275 0.060854 0.788038
0.188091 0.735395 0.443965 0.391315 0.282035 0.356669
0.312634 -0.452859 -0.244158 0.385477 0.572487 0.014846
-0.863853 0.196363 -0.112688 0.402915 0.386596 0.187832
0.406226 0.007327 0.157661 0.589652 0.953980 0.406046
0.339830 -0.420459 -0.833915 0.053278 0.458244 0.140312
0.327472 0.675586 -0.142140 0.160299 0.600881 0.562694
0.453626 0.159453 -0.638292 0.039480 0.144813 0.125669
0.238079 -0.691548 -0.469208 0.181025 0.615055 0.707740
0.702375 0.629818 0.123241 0.841595 0.413244 0.136282
0.296383 0.013011 -0.037460 0.468312 0.651591 0.984980
0.865382 0.413908 0.005771 0.669668 0.292654 0.314376
-0.353543 0.292301 -0.493457 0.255053 0.655820 0.663102
-0.663207 0.231949 -0.137546 0.945020 0.487136 0.720886
-0.196996 -0.240364 -0.580151 0.088378 0.515698 0.427947
-0.140867 0.792392 0.266354 0.376098 0.956638 0.162580
0.646611 -0.033021 -0.082398 0.329470 0.098247 0.833229
-0.634455 0.606215 -0.120263 0.006293 0.654100 0.434611
-0.511754 -0.216642 0.407112 0.888426 0.755826 0.118880
0.144952 -0.117937 0.605889 0.552569 0.872102 0.335284
0.368147 0.232611 -0.021421 0.539299 0.994216 0.246662
-0.202881 0.666736 0.071059 0.912562 0.666552 0.379740
0.628657 0.059260 0.675636 0.652498 0.768498 0.848471
-0.035749 0.434993 0.388548 0.563126 0.401250 0.052010
0.289994 -0.175622 -0.894583 0.667838 0.034077 0.162838
-0.784011 0.251453 0.500201 0.038963 0.620307 0.625601
-0.845127 0.244096 -0.268345 0.419259 0.781579 0.848790
-0.434310 0.135457 -0.568470 0.566838 0.177470 0.206426
0.119819 0.703047 -0.043981 0.151721 0.590585 0.772884
0.430846 -0.096784 -0.811324 0.843415 0.822767 0.285029
0.790037 0.208777 -0.097389 0.785999 0.724165 0.040116
-0.671819 0.392055 0.344887 0.072715 0.617009 0.722258
0.379905 0.290103 -0.021761 0.219350 0.499481 0.468810
0.406343 -0.532070 0.087443 0.853288 0.662003 0.424837
-0.566953 0.527717 0.128423 0.736862 0.636411 0.755239
0.068707 -0.257597 -0.539892 0.494680 0.588125 0.753187
-0.206911 -0.146179 -0.609995 0.015259 0.315721 0.862234
0.090774 -0.213399 -0.910424 0.238294 0.517312 0.055213
-0.937538 0.146227 -0.115944 0.726770 0.191864 0.419328
-0.721803 0.163833 -0.068619 0.081327 0.143902 0.581514
0.893977 0.434603 0.103180 0.691224 0.274620 0.606749
-0.135193 -0.219840 -0.786839 0.130541 0.530372 0.622662
0.299704 0.312402 -0.768214 0.843226 0.477425 0.463172
-0.522913 0.306538 -0.251184 0.694428 0.096047 0.478125
0.136666 -0.067620 0.476280 0.462144 0.441976 0.383974
0.548966 0.359077 -0.033935 0.157140 0.375876 0.047049
-0.068823 -0.830645 -0.433278 0.262340 0.289415 0.942370
0.223904 0.930496 0.266132 0.923109 0.320824 0.148996
-0.588216 0.200935 0.264724 0.061736 0.019611 0.055960
0.440310 0.106752 0.482626 0.600608 0.182872 0.000844
-0.449100 -0.259052 0.353685 0.979052 0.961574 0.845468
0.644505 0.575577 0.433435 0.036684 0.900639 0.872767
-0.086570 0.569705 0.230676 0.866100 0.986176 0.957111
0.772549 -0.250564 0.187409 0.347325 0.311601 0.547721
-0.329826 0.319272 -0.808720 0.670599 0.134174 0.088287
-0.499064 0.101955 -0.515135 0.668980 0.154752 0.955284
0.296293 -0.645600 0.579337 0.149615 0.749195 0.525556
0.181043 0.194447 0.849681 0.373309 0.183211 0.516369
0.332121 0.801829 -0.083428 0.077081 0.798973 0.860748
0.321617 -0.170266 -0.565572 0.527156 0.390790 0.858773
-0.893333 0.110124 0.026497 0.870518 0.664437 0.379409
0.376408 -0.051926 -0.885394 0.579884 0.179809 0.068401
0.604761 0.078550 0.002773 0.791979 0.967124 0.087115
-0.111958 -0.512383 0.648738 0.427449 0.172973 0.641357
-0.227953 0.201790 -0.912342 0.554036 0.589580 0.787899
0.221144 -0.180917 -0.848541 0.048681 0.382143 0.091023
-0.487613 -0.335503 0.475376 0.206747 0.006607 0.732851
0.092561 -0.056441 0.654297 0.546057 0.139587 0.970181
-0.345884 0.228627 0.507836 0.818829 0.328978 0.775056
-0.283879 -0.414452 0.730325 0.787642 0.000421 0.940644
-0.818751 0.147101 0.023041 0.646011 0.402877 0.653293
-0.582061 0.235373 0.618875 0.145410 0.417399 0.859748
-0.667193 -0.070781 0.433640 0.775868 0.812049 0.951021
-0.273694 -0.003872 -0.141356 0.102601 0.661677 0.287842
0.482579 -0.343128 0.804248 0.214530 0.666055 0.493993
-0.532205 -0.514947 -0.671339 0.682642 0.185217 0.247504
-0.476865 0.300101 -0.414314 0.028043 0.741478 0.718557
0.173027 0.618663 0.732691 0.085645 0.268658 0.094948
0.620782 0.472304 -0.324118 0.249491 0.981027 0.943056
0.710052 -0.079656 -0.093625 0.523406 0.572382 0.308218
0.034079 0.135152 -0.165796 0.895936 0.285787 0.868429
-0.435833 -0.335391 0.149045 0.534425 0.851172 0.506263
-0.118425 0.109400 0.919960 0.194592 0.378326 0.808855
0.124394 0.056365 -0.089062 0.095790 0.482749 0.533996
0.015762 0.846586 0.146120 0.693132 0.616056 0.036087
-0.601511 -0.321803 -0.483017 0.372446 0.427043 0.471385
-0.911663 0.137749 0.137469 0.607951 0.756613 0.823753
0.028574 -0.539823 0.569402 0.187626 0.458542 0.971555
0.027486 0.049055 -0.368743 0.520414 0.958961 0.147975
-0.173888 0.164186 0.944723 0.958562 0.421325 0.741348
0.463787 0.305964 -0.235280 0.342252 0.985717 0.823452
-0.110850 0.955459 -0.021840 0.250029 0.577676 0.741945
-0.415078 0.486542 0.422966 0.545475 0.948794 0.559016
0.244372 0.600928 -0.074010 0.665277 0.667265 0.914480
0.279827 -0.416766 -0.015412 0.175197 0.479686 0.975162
0.178754 -0.096706 -0.489808 0.541087 0.745236 0.393274
0.429977 0.787674 0.203313 0.196215 0.290205 0.578396
-0.160347 0.338157 0.031442 0.590419 0.331623 0.823806
-0.074776 0.232001 -0.222580 0.743428 0.754059 0.889045
-0.713160 -0.114419 -0.593387 0.869971 0.193331 0.872252
-0.132953 -0.778683 -0.139391 0.833857 0.125190 0.752393
-0.175684 0.453764 0.674472 0.021534 0.652755 0.318572
0.652865 0.110546 -0.503295 0.285728 0.807409 0.975341
-0.482150 0.449825 -0.284143 0.375007 0.471928 0.054659
-0.464030 -0.230406 -0.120617 0.103481 0.884625 0.986516
0.614826 -0.332489 -0.038890 0.513699 0.706250 0.264380
0.054794 0.418355 -0.191219 0.355026 0.259110 0.570923
-0.634586 -0.330960 -0.191746 0.378456 0.344512 0.192903
0.564485 0.061784 0.145594 0.913159 0.682637 0.005169
0.299856 0.203973 -0.257787 0.795696 0.123381 0.207564
-0.744724 -0.224252 0.139918 0.859861 0.236953 0.960329
-0.617320 -0.623899 -0.274343 0.251478 0.294129 0.415639
-0.503924 0.335777 0.639088 0.091664 0.438385 0.803666
-0.233924 0.457698 -0.576865 0.827470 0.781881 0.378985
0.119865 0.733740 0.311659 0.277928 0.270649 0.081196
-0.712812 -0.528412 0.334178 0.887796 0.641446 0.983324
0.281890 0.685628 0.286847 0.270084 0.237657 0.325740
0.228106 0.048391 0.214250 0.371978 0.841630 0.742815
0.498842 0.408181 -0.301315 0.029751 0.971554 0.603535
0.089531 -0.562117 0.643222 0.134885 0.073432 0.069723
-0.677373 -0.394338 0.560756 0.757879 0.796267 0.069441
-0.320663 -0.080623 -0.158223 0.952554 0.906063 0.733249
-0.486303 0.083632 0.502522 0.236859 0.040961 0.159275
0.441535 -0.301924 -0.656234 0.315741 0.157214 0.963329
-0.090215 -0.825122 -0.521165 0.083990 0.750153 0.307074
0.714924 -0.293239 0.598113 0.126683 0.742816 0.425687
0.553808 -0.318766 0.263663 0.541888 0.369939 0.747661
-0.433200 0.155321 -0.640134 0.763072 0.811741 0.744877
0.561992 -0.055988 -0.711374 0.884970 0.171384 0.403322
-0.159625 0.469675 0.771213 0.170257 0.309797 0.725518
-0.027366 0.272873 0.330029 0.685773 0.179836 0.764281
-0.359644 0.766318 -0.523573 0.168119 0.803238 0.441539
-0.262604 0.599411 0.353776 0.001510 0.920368 0.984944
-0.019705 0.282920 -0.312600 0.730920 0.720070 0.517508
0.824571 0.550851 -0.022573 0.845549 0.206439 0.449294
0.540521 0.201347 -0.456395 0.869548 0.419891 0.939820
-0.017311 0.520863 -0.130049 0.024180 0.334250 0.876420
-0.159178 -0.840710 0.489599 0.576908 0.735442 0.491418
-0.063953 0.519295 -0.461423 0.326394 0.197511 0.474188
0.500756 0.168275 0.665495 0.763839 0.181392 0.430300
-0.445082 0.581371 0.399501 0.802975 0.092777 0.391406
0.277399 -0.300548 0.087988 0.641161 0.625738 0.398443
-0.137891 0.195576 0.326315 0.954715 0.155494 0.668044
0.733336 0.092088 0.460909 0.201309 0.954101 0.026328
-0.044212 -0.527283 -0.191623 0.263736 0.355704 0.324751
-0.443611 0.772309 0.356094 0.400950 0.173059 0.265389
0.043326 0.135709 -0.815798 0.475830 0.559113 0.827152
0.089660 0.562860 -0.175654 0.494645 0.908276 0.886016
-0.454033 0.385280 -0.389406 0.222017 0.563437 0.536860
0.242104 -0.436377 -0.265407 0.906715 0.702805 0.105334
-0.884738 0.239068 0.066219 0.050699 0.188851 0.803976
0.261041 -0.569884 0.135247 0.220566 0.250712 0.208781
0.375058 -0.582405 0.605059 0.990137 0.833327 0.485782
-0.238453 0.188546 -0.633022 0.881921 0.832690 0.303587
0.538942 -0.134559 0.614840 0.574397 0.884491 0.449646
0.051992 0.419987 0.236194 0.357658 0.897669 0.352235
0.238966 -0.213168 -0.716490 0.748110 0.825713 0.204510
0.331293 0.534699 -0.378593 0.903051 0.273128 0.587216
-0.439413 0.876680 -0.011833 0.929746 0.189143 0.908844
-0.058701 0.598336 -0.487506 0.218840 0.251698 0.855021
-0.169075 -0.019141 -0.015826 0.778521 0.685349 0.537813
-0.148995 -0.091231 0.371895 0.134038 0.507324 0.379172
0.202099 -0.505248 0.323069 0.428063 0.276233 0.093425
-0.337159 0.139126 -0.582034 0.211967 0.202155 0.018442
0.179972 -0.206851 0.073651 0.156483 0.150535 0.170489
-0.392304 0.377062 0.155369 0.682146 0.606375 0.099762
0.011310 0.592897 -0.012750 0.122101 0.002574 0.650927
0.934739 -0.115456 -0.015911 0.901552 0.830630 0.275353
-0.720947 -0.019150 -0.439960 0.577319 0.572574 0.292792
0.097411 0.239681 0.594550 0.473775 0.616856 0.592042
-0.328065 0.357394 0.687632 0.810905 0.689833 0.267335
0.888446 0.381162 -0.000368 0.055801 0.180043 0.333927
0.528449 0.000169 -0.076992 0.979817 0.964463 0.406771
-0.068771 0.316787 0.789973 0.839714 0.264166 0.320687
0.771547 0.022812 0.064183 0.455005 0.582990 0.777089
0.185641 0.186549 0.508816 0.321223 0.834852 0.903342
-0.251916 -0.615779 -0.242612 0.164183 0.247728 0.973374
-0.867942 0.177397 0.461035 0.901128 0.174984 0.072815
-0.412683 0.340557 0.487077 0.249617 0.751160 0.668319
-0.414404 -0.767714 -0.142621 0.155785 0.016870 0.168505
0.733330 0.269842 0.098346 0.266429 0.394334 0.813905
-0.145301 0.417970 0.541301 0.580915 0.147135 0.710902
-0.668999 0.420445 -0.445811 0.677730 0.676564 0.055341
-0.728624 -0.022734 -0.474668 0.658723 0.311542 0.076018
-0.146753 0.202379 0.261396 0.516737 0.734482 0.546156
-0.250460 0.841221 0.143173 0.878240 0.913911 0.903162
0.068078 -0.408673 0.457212 0.038461 0.489173 0.510144
0.384486 0.431264 -0.766335 0.580645 0.119443 0.260227
0.556579 0.121375 0.702389 0.471180 0.242422 0.744726
-0.674758 -0.175335 0.463165 0.679369 0.994161 0.382766
-0.264755 0.113967 0.947814 0.520901 0.959846 0.670423
0.374875 -0.099454 0.498666 0.045526 0.081317 0.311682
-0.060339 -0.460189 0.435765 0.733247 0.251198 0.679023
0.766845 0.422935 0.234883 0.858681 0.555944 0.200373
0.327138 0.725294 -0.375342 0.110429 0.337297 0.899246
-0.156438 0.011575 -0.659185 0.240634 0.230716 0.399712
0.371370 0.696216 0.209463 0.532166 0.222739 0.264822
0.216564 0.366141 -0.172301 0.420575 0.790476 0.520267
0.092574 -0.687904 0.619068 0.846078 0.469880 0.779173
-0.570986 0.016149 -0.813299 0.358930 0.559278 0.661273
0.199952 0.348291 0.501550 0.135646 0.986891 0.130819
-0.356006 -0.354392 -0.560722 0.357992 0.791692 0.609160
-0.530655 0.254490 -0.714750 0.433381 0.928264 0.048120
-0.259105 -0.571350 0.361324 0.907139 0.753885 0.622055
-0.380305 0.427026 -0.267567 0.281627 0.504617 0.312410
0.029141 -0.120456 -0.494880 0.668822 0.585279 0.135423
0.250570 -0.072811 -0.758693 0.856894 0.767729 0.354214
-0.580485 -0.684688 0.415093 0.322099 0.127448 0.824763
0.504579 -0.360610 0.131488 0.844214 0.917521 0.646882
0.179501 0.599267 -0.083297 0.360238 0.190802 0.764581
-0.690160 -0.147468 0.097961 0.317287 0.207699 0.409821
0.547957 -0.245293 0.305835 0.951457 0.897017 0.486416
0.481861 0.470810 0.699810 0.647950 0.929037 0.879314
0.523296 0.308732 -0.226517 0.246950 0.881974 0.171590
-0.234397 -0.203879 -0.355744 0.054852 0.195210 0.681926
-0.561531 0.185795 0.006059 0.002167 0.928187 0.770999
0.074252 0.737085 0.294498 0.975522 0.493076 0.311861
0.775714 0.002626 0.287340 0.130049 0.503682 0.914760
0.118330 -0.162408 -0.924806 0.074532 0.497417 0.000858
0.744281 0.472292 0.129676 0.933653 0.785372 0.001582
-0.233787 0.604608 0.599058 0.269224 0.108451 0.659842
0.558185 -0.351416 -0.346165 0.081085 0.958082 0.156045
0.143584 -0.166980 -0.163217 0.013933 0.026740 0.785565
0.286245 -0.031602 -0.211834 0.629438 0.178535 0.548290
-0.081806 -0.239977 0.614960 0.038756 0.806243 0.003640
0.093135 -0.320050 0.421758 0.659342 0.281190 0.597309
0.000892 0.067800 0.413076 0.528134 0.280489 0.736206
-0.211015 0.624174 0.611272 0.052203 0.128765 0.196003
-0.595260 -0.303950 -0.295531 0.426525 0.736428 0.674026
0.633185 0.085442 -0.369831 0.612949 0.969729 0.014423
0.669578 0.499199 -0.387096 0.324255 0.969293 0.993859
-0.525144 0.056477 0.498169 0.211201 0.707325 0.870540
-0.244436 0.796250 0.469389 0.719558 0.425258 0.786587
0.010993 -0.500457 -0.041620 0.556424 0.345602 0.454270
0.677478 -0.551891 0.076695 0.873306 0.537217 0.401761
0.076274 0.246757 0.670557 0.428463 0.451673 0.890452
-0.540678 -0.657130 -0.005839 0.927154 0.300440 0.101792
-0.053119 0.140280 0.258999 0.036146 0.409725 0.270658
0.204851 -0.968182 -0.101481 0.084130 0.821946 0.498966
0.371365 0.524149 0.298247 0.284538 0.763201 0.252043
-0.606692 0.106584 0.026035 0.155071 0.646205 0.901777
-0.440801 -0.480713 -0.143451 0.670622 0.465376 0.001121
0.252760 0.177908 0.281622 0.456395 0.711504 0.737462
-0.806078 0.018139 -0.589031 0.462452 0.125937 0.463563
-0.476199 -0.687870 0.471932 0.418481 0.170334 0.305102
-0.072372 0.519513 -0.236017 0.323231 0.751951 0.101665
-0.171020 -0.615412 -0.211003 0.545655 0.100572 0.760106
0.132895 -0.859925 -0.240111 0.155208 0.597390 0.922388
0.363656 0.498693 0.775823 0.922232 0.807783 0.361627
0.124693 0.259125 0.636912 0.810971 0.862004 0.406278
-0.061908 -0.484171 -0.283182 0.392739 0.705453 0.091414
-0.170768 0.281777 0.460025 0.252380 0.744173 0.304088
0.728792 -0.609902 -0.100325 0.946375 0.353861 0.654000
-0.502410 -0.413484 -0.081137 0.202160 0.364510 0.306680
0.441327 0.450527 -0.402009 0.938604 0.186569 0.721291
0.530604 0.113097 0.419555 0.293026 0.586968 0.173391
0.247706 0.294706 0.528387 0.944094 0.344917 0.549340
0.361877 -0.227941 0.767461 0.656154 0.426480 0.740246
-0.243683 0.542548 -0.163161 0.397233 0.152598 0.778271
-0.347421 0.256440 -0.372765 0.579225 0.066239 0.259428
0.355687 -0.413924 -0.643088 0.042961 0.697177 0.231982
-0.577738 0.281830 -0.249890 0.638211 0.775875 0.037831
0.789420 -0.540477 0.162331 0.907871 0.894820 0.071583
-0.400272 -0.160339 -0.312574 0.181389 0.170703 0.848702
-0.354745 -0.610637 -0.008437 0.380420 0.539109 0.590173
-0.374450 0.546962 -0.641555 0.128598 0.301960 0.291993
-0.589702 -0.513045 0.470166 0.404709 0.580527 0.749718
0.643198 -0.731614 0.216128 0.292291 0.539158 0.957528
0.123067 0.443457 -0.795902 0.806213 0.897297 0.094201
0.505491 -0.154204 0.238056 0.029648 0.668895 0.668627
0.934985 0.261855 0.033368 0.117597 0.096241 0.342601
-0.150795 -0.461045 0.431682 0.783878 0.198851 0.355433
-0.570490 -0.557090 0.532739 0.431153 0.510842 0.962878
0.441140 0.362696 0.705090 0.943766 0.803886 0.071685
-0.257232 0.211584 0.260275 0.758552 0.287554 0.121584
-0.205985 -0.585223 0.476185 0.084157 0.555638 0.430883
-0.295456 -0.036120 -0.834268 0.322070 0.685301 0.818321
0.635714 -0.409094 -0.417709 0.353540 0.460241 0.876847
0.538357 0.140697 -0.292509 0.979802 0.357934 0.340818
0.391102 -0.079089 0.105237 0.589887 0.105857 0.414058
0.653718 -0.165318 -0.268559 0.495604 0.923942 0.693091
0.220906 -0.364366 -0.597016 0.146990 0.678971 0.276272
0.036354 -0.436954 -0.812933 0.230185 0.317426 0.043872
-0.541726 -0.830539 -0.031527 0.345394 0.716232 0.882417
0.686003 -0.015097 0.448003 0.746515 0.043406 0.096439
-0.109765 0.212350 -0.960878 0.068283 0.419126 0.838871
-0.147153 -0.637923 -0.403887 0.199695 0.632930 0.931775
0.280997 0.364541 -0.797699 0.966936 0.518021 0.802820
-0.155996 -0.641574 0.031547 0.556594 0.233125 0.390832
0.375360 0.092937 0.132503 0.666948 0.535784 0.026122
-0.657780 0.460792 0.362675 0.297705 0.079808 0.354967
0.273956 -0.327440 -0.286662 0.640997 0.856431 0.120361
-0.616101 0.227918 -0.564297 0.178151 0.688985 0.346510
-0.068973 0.955772 0.014151 0.466496 0.096976 0.710873
-0.387335 0.489191 -0.091030 0.041465 0.123255 0.933036
-0.169189 0.472620 -0.317156 0.975047 0.818758 0.216930
0.702928 0.438744 -0.259597 0.595558 0.224024 0.497585
0.538185 0.322274 -0.332150 0.758720 0.128617 0.569258
-0.182158 -0.278027 0.562717 0.956283 0.258367 0.337537
-0.444388 -0.115189 -0.371996 0.130964 0.591637 0.427489
0.046628 -0.415658 0.593250 0.068387 0.601899 0.472077
0.185833 0.905706 0.017155 0.631397 0.917428 0.930553
-0.166334 0.005157 -0.857798 0.839624 0.876749 0.059957
-0.151040 0.429923 0.039056 0.853778 0.004372 0.737897
-0.539226 0.020840 -0.760747 0.606590 0.963711 0.526613
-0.728703 0.240374 -0.513716 0.605506 0.837384 0.412794
0.467785 -0.365463 0.731053 0.491222 0.940935 0.749629
-0.022345 -0.111828 -0.071397 0.388275 0.544732 0.446361
0.364344 0.246450 -0.298267 0.824005 0.933044 0.187685
0.437784 -0.749086 0.039693 0.592552 0.164549 0.323747
0.604055 -0.603740 -0.486872 0.343509 0.636410 0.051052
0.575271 0.394357 0.647035 0.909789 0.421463 0.319412
-0.164523 -0.371831 0.621459 0.794780 0.177533 0.640914
0.486541 0.084297 -0.546098 0.805036 0.970988 0.873915
-0.066399 -0.318093 -0.566887 0.552006 0.126191 0.242770
0.115388 0.779387 0.249243 0.301228 0.234529 0.807959
-0.538782 0.139330 0.563585 0.040768 0.182660 0.968682
0.652815 -0.569878 0.254810 0.430917 0.100176 0.938378
-0.767396 0.494094 -0.109004 0.287695 0.715561 0.555928
-0.664906 -0.390102 0.403866 0.349659 0.472300 0.403596
-0.629167 -0.122858 -0.566478 0.582864 0.668287 0.093956
-0.669404 0.728390 0.138999 0.171600 0.816030 0.038905
0.201407 0.215771 0.608121 0.695028 0.888933 0.808409
-0.112125 0.120073 0.510290 0.041490 0.020630 0.309562
0.438739 -0.141862 0.601323 0.613257 0.258509 0.521663
-0.267114 -0.515009 -0.711997 0.074145 0.414014 0.897542
0.774039 0.465477 -0.350315 0.381085 0.391227 0.994029
-0.505640 -0.815758 0.268203 0.224156 0.032576 0.864040
0.113131 -0.897876 0.051295 0.861597 0.973575 0.118722
0.157421 -0.171120 0.147753 0.518484 0.371388 0.215650
0.235258 0.519132 -0.111481 0.588237 0.260840 0.959301
-0.612355 -0.288048 0.016501 0.287684 0.100967 0.303823
0.185546 0.193831 -0.197949 0.623048 0.158812 0.536005
0.148035 -0.912642 -0.014420 0.920776 0.178145 0.135175
-0.219448 0.631390 0.299742 0.811047 0.803198 0.582073
0.626888 -0.291360 0.476041 0.495691 0.897257 0.206389
-0.144439 0.400113 0.055247 0.199882 0.524006 0.600612
-0.118010 0.138086 -0.033118 0.115393 0.462005 0.938678
0.363488 0.315434 0.301277 0.180064 0.202079 0.577273
0.157899 0.836301 0.102612 0.715537 0.381416 0.567954
-0.503419 -0.474250 0.619999 0.339515 0.227919 0.081882
0.247575 0.641261 -0.405876 0.247994 0.288807 0.005253
0.172676 -0.231657 -0.833002 0.152517 0.326227 0.742513
0.841179 0.380740 -0.206045 0.745564 0.156288 0.990843
-0.070492 0.691090 -0.405091 0.523695 0.360426 0.894988
-0.380077 -0.073701 0.402882 0.643486 0.428675 0.767308
-0.259160 -0.406752 -0.079023 0.485798 0.875504 0.749734
-0.751592 0.124707 -0.028190 0.079983 0.841726 0.962755
0.150497 -0.172148 0.833209 0.351055 0.328804 0.421181
-0.158042 -0.517635 0.291747 0.059380 0.851476 0.873924
0.597954 0.562266 0.091040 0.740415 0.413500 0.784180
0.186701 -0.117488 0.634988 0.880171 0.354668 0.737996
-0.064497 0.324414 0.019615 0.097230 0.599161 0.072841
-0.668236 -0.456840 0.436908 0.698426 0.468992 0.831537
-0.676110 0.237929 -0.410248 0.524210 0.603690 0.292571
-0.463473 0.427292 0.103430 0.798090 0.422601 0.145309
-0.062417 0.384707 -0.239454 0.896399 0.788454 0.895851
0.539336 0.675419 -0.245245 0.801907 0.965621 0.993290
-0.318851 0.913838 -0.044962 0.104717 0.771561 0.080115
-0.160026 0.016112 0.485109 0.001395 0.452104 0.594946
0.062320 -0.806111 -0.391605 0.330735 0.917226 0.119505
-0.401562 -0.416049 -0.000088 0.675517 0.071517 0.838358
-0.655247 0.287834 0.443513 0.807758 0.479000 0.165420
-0.712352 0.191273 0.526711 0.797745 0.845769 0.313950
0.562964 0.114809 -0.439878 0.328082 0.513626 0.802862
0.177180 0.675582 0.176392 0.394897 0.515314 0.897770
-0.817098 -0.374327 0.293825 0.429889 0.345868 0.710144
0.275918 -0.176067 -0.714773 0.245033 0.228230 0.606326
0.394153 -0.286772 -0.837776 0.689325 0.050677 0.944198
0.107639 0.700769 -0.382726 0.953170 0.484331 0.424950
0.705026 0.473053 -0.115100 0.904622 0.600354 0.966776
-0.150685 0.335884 0.011805 0.347067 0.795673 0.048887
-0.379208 0.782222 -0.360222 0.562855 0.569523 0.183030
-0.748947 0.107183 -0.304839 0.196810 0.055181 0.920878
-0.920710 -0.007911 -0.189255 0.894647 0.138638 0.250467
-0.547138 0.532482 -0.271073 0.092643 0.324693 0.373990
0.260492 -0.401142 -0.810340 0.375629 0.298666 0.229232
-0.051263 -0.556981 0.664087 0.148532 0.820460 0.539711
0.605613 0.644868 -0.225748 0.016699 0.397015 0.056923
-0.429094 -0.416811 0.265941 0.887756 0.017887 0.214943
-0.771394 -0.334931 0.491623 0.527058 0.682038 0.314699
-0.282644 -0.209744 0.728105 0.931294 0.548396 0.137817
-0.330209 0.781283 0.506953 0.207756 0.069627 0.127147
-0.083141 -0.270483 -0.802467 0.036942 0.060725 0.137795
-0.146794 0.666880 0.318420 0.152609 0.773294 0.500643
-0.034374 0.414659 -0.876103 0.194677 0.287493 0.658954
0.429122 -0.432898 0.607961 0.524655 0.656226 0.499981
0.210660 -0.687019 0.610496 0.718575 0.659753 0.022162
0.255005 -0.304309 0.692000 0.581901 0.040761 0.390331
-0.451245 -0.173697 0.136929 0.547075 0.398787 0.100645
0.225160 0.084081 -0.492970 0.475250 0.250813 0.357473
0.470075 0.554144 -0.650058 0.244744 0.170852 0.967241
-0.685395 -0.339100 -0.183288 0.270101 0.704466 0.788177
-0.055251 -0.516741 -0.616313 0.871906 0.614997 0.273743
0.123441 -0.002978 -0.267977 0.315715 0.337461 0.449115
0.171007 -0.324546 0.564821 0.370185 0.512134 0.324787
-0.115902 0.060116 -0.221199 0.559625 0.615623 0.116054
-0.293052 -0.553710 -0.707239 0.037772 0.538798 0.903974
0.021992 0.840718 -0.170881 0.285430 0.647260 0.945516
-0.890934 0.298684 0.336282 0.747811 0.548649 0.388929
0.446217 0.538163 0.572714 0.974906 0.809157 0.736900
-0.118146 0.386709 0.862188 0.934833 0.152300 0.470151
-0.360348 0.778712 -0.332656 0.509397 0.222377 0.531527
-0.316635 -0.416353 0.818209 0.871675 0.467569 0.027579
0.631911 0.472532 -0.489584 0.303406 0.964651 0.830299
-0.241390 0.461349 -0.521858 0.136954 0.218588 0.446272
0.682079 0.327692 0.365914 0.615838 0.369218 0.308240
-0.390299 0.400466 0.472325 0.073887 0.864226 0.895026
0.087717 -0.493374 -0.290452 0.565643 0.672069 0.311459
0.578466 -0.436716 -0.500062 0.414027 0.131129 0.740049
-0.702286 -0.462171 -0.029187 0.228172 0.667795 0.714400
